1719
-65.7162  -88.085  -662
-33.6179  -92.1237  -679
-36.9553  -91.581  -675
-62.4369  -90.0886  -664
-65.3192  -89.2745  -658
-24.2898  -92.2409  -667
-28.1999  -93.6238  -677
-31.8866  -94.0387  -680
-35.1354  -93.2089  -674
-38.5509  -92.9323  -672
-62.0608  -91.2728  -660
-65.2199  -90.858  -657
-68.7656  -90.9963  -658
-22.4079  -93.4225  -663
-25.8414  -93.2816  -662
-29.9286  -95.2544  -676
-33.5189  -95.3953  -677
-36.9005  -94.9725  -674
-40.3108  -94.6907  -672
-62.2489  -93.2816  -662
-65.4184  -92.8589  -659
-68.6611  -92.5771  -657
-22.2727  -94.5833  -659
-25.6463  -94.2962  -657
-29.5302  -95.7315  -667
-33.3703  -96.7361  -674
-36.9005  -96.7361  -674
-40.1308  -96.0185  -669
-62.0608  -94.7268  -660
-65.2199  -94.2962  -657
-68.5566  -94.1527  -656
-22.3065  -96.4538  -660
-25.6463  -96.0153  -657
-29.1317  -96.1615  -658
-32.9742  -97.3306  -666
-36.6268  -97.7691  -669
-39.8909  -97.1845  -665
-43.5697  -97.6229  -668
-63.6926  -96.3076  -659
-66.8386  -95.8692  -656
-20.9834  -100.115  -673
-23.9621  -97.8832  -658
-27.2836  -97.437  -655
-30.808  -97.7345  -657
-34.4578  -98.3295  -661
-37.9773  -98.4783  -662
-41.5072  -98.627  -663
-62.0608  -98.1807  -660
-65.0214  -97.437  -655
-68.3476  -97.2882  -654
-22.5431  -100.967  -667
-25.6853  -99.605  -658
-29.0875  -99.4536  -657
-32.6772  -99.9077  -660
-36.2436  -100.21  -662
-39.7109  -100.21  -662
-43.5044  -100.967  -667
-62.3429  -100.362  -663
-65.2199  -99.4536  -657
-68.4521  -99.1508  -655
-72.3218  -99.7563  -659
-25.8024  -101.789  -661
-29.2203  -101.635  -660
-32.6277  -101.481  -659
-36.1888  -101.789  -661
-39.591  -101.635  -660
-43.3088  -102.251  -664
-62.0608  -101.635  -660
-65.1206  -101.019  -656
-68.5566  -101.019  -656
-72.3218  -101.481  -659
-24.4355  -105.084  -671
-27.7834  -104.458  -667
-31.0894  -103.831  -663
-34.4578  -103.518  -661
-37.8625  -103.362  -660
-41.382  -103.518  -661
-45.2512  -104.458  -667
-60.5152  -103.675  -662
-63.596  -103.048  -658
-66.7367  -102.579  -655
-70.1674  -102.579  -655
-73.9352  -103.048  -658
-26.2708  -107.159  -673
-29.5302  -106.203  -667
-32.7762  -105.407  -662
-36.1888  -105.248  -661
-39.591  -105.089  -660
-43.1783  -105.407  -662
-46.9275  -106.044  -666
-59.2255  -106.203  -667
-61.9668  -104.929  -659
-65.0214  -104.293  -655
-68.034  -103.656  -651
-71.6633  -103.974  -653
-75.3135  -104.293  -655
-28.4082  -110.376  -682
-31.3707  -108.272  -669
-34.6141  -107.463  -664
-37.9773  -107.139  -662
-41.5698  -107.463  -664
-45.1155  -107.625  -665
-48.8909  -108.272  -669
-53.3348  -110.214  -681
-60.698  -107.463  -664
-63.596  -106.492  -658
-66.3292  -105.359  -651
-69.5247  -105.035  -649
-73.3734  -105.683  -653
-77.3816  -106.492  -658
-33.1723  -110.187  -670
-36.3531  -109.2  -664
-39.7109  -108.871  -662
-43.3088  -109.2  -664
-46.9275  -109.529  -666
-50.8701  -110.516  -672
-59.9358  -111.009  -675
-62.1548  -108.707  -661
-65.0214  -107.72  -655
-67.7205  -106.569  -648
-71.3341  -106.898  -650
-75.4285  -107.885  -656
-33.4693  -112.943  -676
-36.4078  -111.105  -665
-39.7709  -110.771  -663
-43.4392  -111.272  -666
-46.998  -111.439  -667
-50.7187  -111.94  -670
-55.1182  -113.778  -681
-61.9598  -120.127  -719
-61.1551  -111.773  -669
-63.8859  -110.437  -661
-66.6348  -109.267  -654
-69.7389  -108.766  -651
-73.7105  -109.601  -656
-77.7345  -110.437  -661
-36.6268  -113.524  -669
-39.9509  -113.015  -666
-43.5044  -113.184  -667
-47.0685  -113.354  -668
-50.643  -113.524  -669
-54.8754  -115.051  -678
-61.0119  -120.142  -708
-61.1551  -113.524  -669
-63.9826  -112.336  -662
-66.5329  -110.809  -653
-69.7389  -110.469  -651
-73.5981  -111.148  -655
-77.8521  -112.336  -662
-36.9553  -116.308  -675
-40.0709  -115.102  -668
-43.5044  -114.93  -667
-47.0685  -115.102  -668
-50.7187  -115.447  -670
-54.7945  -116.653  -677
-60.0639  -120.099  -697
-61.1551  -115.274  -669
-64.0792  -114.24  -663
-66.7367  -112.862  -655
-69.846  -112.345  -652
-73.5981  -112.862  -655
-77.8521  -114.068  -662
-37.1195  -118.599  -678
-40.3108  -117.55  -672
-43.6349  -117.025  -669
-47.2798  -117.375  -671
-50.7187  -117.2  -670
-54.7136  -118.249  -676
-59.8054  -121.398  -694
-61.3379  -117.375  -671
-64.1759  -116.15  -664
-66.6348  -114.401  -654
-69.846  -114.051  -652
-73.4858  -114.401  -654
-77.8521  -115.8  -662
-37.2838  -120.906  -681
-40.4308  -119.663  -674
-43.7001  -118.953  -670
-47.3503  -119.308  -672
-50.8701  -119.308  -672
-54.7136  -120.018  -676
-59.7192  -123.036  -693
-61.7035  -119.841  -675
-64.2725  -118.065  -665
-66.8386  -116.467  -656
-70.0603  -116.112  -654
-73.7105  -116.467  -656
-77.9697  -117.71  -663
-38.8951  -122.147  -678
-42.0707  -121.066  -672
-45.5226  -120.886  -671
-49.2563  -121.427  -674
-52.7082  -121.246  -673
-57.0688  -123.048  -683
-62.2445  -126.291  -701
-62.9071  -120.526  -669
-65.617  -119.085  -661
-68.5566  -118.184  -656
-71.9925  -118.184  -656
-75.8884  -118.904  -660
-37.6123  -125.566  -687
-40.4908  -123.373  -675
-43.8306  -122.825  -672
-47.4912  -123.19  -674
-51.0215  -123.19  -674
-54.7136  -123.556  -676
-59.8916  -127.029  -695
-61.9778  -123.921  -678
-64.2725  -121.545  -665
-67.1443  -120.449  -659
-70.3817  -120.083  -657
-74.0476  -120.449  -659
-78.3225  -121.728  -666
-39.0672  -126.252  -681
-42.1959  -124.954  -674
-45.6583  -124.768  -673
-49.2563  -124.954  -674
-52.7082  -124.768  -673
-56.9852  -126.437  -682
-62.6884  -130.886  -706
-62.9071  -124.027  -669
-66.014  -123.285  -665
-68.6611  -121.802  -657
-72.212  -121.988  -658
-75.8884  -122.358  -660
-37.7218  -129.538  -689
-40.6707  -127.469  -678
-44.0262  -126.905  -675
-47.4208  -126.529  -673
-50.8701  -126.341  -672
-54.7136  -127.093  -676
-59.8054  -130.478  -694
-62.252  -128.034  -681
-64.4658  -125.401  -667
-67.348  -124.273  -661
-70.5959  -123.897  -659
-74.2723  -124.273  -661
-78.0873  -124.837  -664
-12.406  -130.769  -686
-37.7765  -131.531  -690
-40.7907  -129.625  -680
-44.0914  -128.862  -676
-47.4208  -128.29  -673
-50.7944  -127.909  -671
-54.7136  -128.862  -676
-59.6331  -131.912  -692
-62.252  -129.815  -681
-64.5625  -127.337  -668
-67.348  -126.003  -661
-70.4888  -125.431  -658
-74.16  -125.812  -660
-78.0873  -126.575  -664
0.168559  -131.597  -681
-3.39334  -131.404  -680
-6.97545  -131.791  -682
-10.5166  -131.404  -680
-14.099  -131.597  -681
-17.9253  -133.53  -691
-37.7218  -133.143  -689
-40.8507  -131.597  -681
-44.1567  -130.824  -677
-47.5617  -130.438  -675
-51.0215  -130.245  -674
-54.7136  -130.631  -676
-59.2884  -132.95  -688
-61.8864  -130.824  -677
-64.5625  -129.085  -668
-67.5518  -128.119  -663
-70.8102  -127.733  -661
-74.3847  -127.926  -662
-78.0873  -128.312  -664
5.47837  -132.4  -676
1.92907  -131.812  -673
-1.59592  -131.812  -673
-5.1209  -131.812  -673
-8.68443  -132.4  -676
-12.2794  -132.988  -679
-15.8824  -133.379  -681
-19.5921  -134.359  -686
-36.5951  -137.492  -702
-39.2967  -134.163  -685
-42.6341  -133.379  -681
-45.9296  -132.596  -677
-49.4756  -132.596  -677
-52.7866  -132.008  -674
-56.8181  -133.183  -680
-60.6462  -133.771  -683
-63.0952  -131.421  -671
-65.9148  -130.05  -664
-69.0791  -129.462  -661
-72.5412  -129.462  -661
-76.2333  -129.854  -663
-80.5475  -131.225  -670
-102.445  -127.895  -653
7.27017  -134.566  -678
3.66963  -132.78  -669
0.166083  -133.176  -671
-3.34843  -133.176  -671
-6.89363  -133.772  -674
-10.4239  -133.772  -674
-14.0369  -134.566  -678
-17.64  -134.963  -680
-21.4199  -136.352  -687
-36.4908  -138.932  -700
-39.2967  -135.955  -685
-42.6341  -135.161  -681
-46.0653  -134.764  -679
-49.7679  -135.161  -681
-53.0998  -134.566  -678
-56.9017  -135.161  -681
-60.3798  -134.963  -680
-63.0011  -132.978  -670
-66.2126  -132.383  -667
-69.3926  -131.787  -664
-72.7607  -131.589  -663
-76.3483  -131.787  -664
-99.3285  -130.001  -655
-102.132  -129.207  -651
9.13915  -137.748  -685
5.42165  -134.53  -669
1.91187  -134.128  -667
-1.58643  -134.53  -669
-5.10569  -134.932  -671
-8.64589  -135.334  -673
-12.189  -135.535  -674
-15.7892  -136.139  -677
-19.4208  -136.742  -680
-23.1852  -137.949  -686
-27.0906  -139.557  -694
-31.0797  -141.166  -702
-34.8556  -141.568  -704
-37.7218  -138.552  -689
-40.9706  -137.345  -683
-44.2871  -136.541  -679
-47.7026  -136.139  -677
-51.3243  -136.34  -678
-55.0373  -136.742  -680
-58.9437  -137.546  -684
-61.6121  -135.535  -674
-64.5625  -134.329  -668
-67.6537  -133.525  -664
-70.9173  -133.122  -662
-74.3847  -133.122  -662
-78.6753  -134.53  -669
-98.7219  -130.91  -651
-101.661  -130.307  -648
-104.893  -130.106  -647
9.08578  -138.725  -681
5.42165  -136.281  -669
1.90901  -135.669  -666
-1.58169  -135.873  -667
-5.09808  -136.484  -670
-8.64589  -137.095  -673
-12.1528  -136.892  -672
-15.7425  -137.503  -675
-19.3922  -138.318  -679
-23.0838  -139.132  -683
-26.7783  -139.744  -686
-30.6813  -141.17  -693
-34.5091  -141.984  -697
-37.667  -140.151  -688
-40.9706  -139.132  -683
-44.3523  -138.521  -680
-47.7731  -138.114  -678
-51.2486  -137.91  -677
-55.0373  -138.521  -680
-58.7713  -138.929  -682
-61.5207  -137.095  -673
-64.3692  -135.669  -666
-67.7556  -135.466  -665
-70.9173  -134.855  -662
-74.3847  -134.855  -662
-78.7929  -136.484  -670
-94.1824  -133.429  -655
-97.017  -132.614  -651
-100.118  -132.206  -649
-103.039  -131.595  -646
10.9012  -140.92  -683
7.21656  -138.856  -673
3.65866  -137.618  -667
0.164598  -137.206  -665
-3.32847  -137.618  -667
-6.84249  -138.031  -669
-10.3775  -138.444  -671
-13.9334  -138.856  -673
-17.5881  -139.888  -678
-21.1704  -140.094  -679
-24.7997  -140.507  -681
-28.6165  -141.745  -687
-32.543  -143.189  -694
-36.0738  -142.777  -692
-39.2967  -141.332  -685
-42.6341  -140.507  -681
-45.9296  -139.682  -677
-49.4025  -139.475  -676
-53.0215  -139.682  -677
-56.9017  -140.507  -681
-60.291  -140.094  -679
-62.8131  -137.825  -668
-66.014  -137.206  -665
-69.1836  -136.587  -662
-72.5412  -136.38  -661
-76.5783  -137.412  -666
-92.3259  -134.936  -654
-95.0193  -133.905  -649
-98.1153  -133.492  -647
-101.504  -133.492  -647
-105.055  -133.698  -648
8.97905  -140.617  -673
5.42165  -139.782  -669
1.90614  -138.946  -665
-1.58169  -139.364  -667
-5.08286  -139.573  -668
-8.60735  -139.991  -670
-12.1709  -140.617  -673
-15.8125  -141.662  -678
-19.4493  -142.289  -681
-22.9824  -142.08  -680
-26.6612  -142.707  -683
-30.5042  -143.96  -689
-34.1625  -144.169  -690
-37.6123  -143.543  -687
-40.9107  -142.498  -682
-44.3523  -142.08  -680
-47.7731  -141.662  -678
-51.3243  -141.662  -678
-54.8754  -141.662  -678
-58.5128  -141.871  -679
-61.5207  -140.617  -673
-64.5625  -139.573  -668
-67.8575  -139.155  -666
-70.9173  -138.319  -662
-74.6094  -138.737  -664
-79.2633  -140.826  -674
-93.4634  -135.812  -650
-96.5699  -135.394  -648
-99.9639  -135.394  -648
-103.198  -135.185  -647
12.7456  -145.129  -686
8.93902  -141.744  -670
5.41354  -141.321  -668
1.90328  -140.474  -664
-1.57932  -140.897  -666
-5.08286  -141.321  -668
-8.60735  -141.744  -670
-12.2251  -143.013  -676
-15.8358  -143.648  -679
-19.4779  -144.282  -682
-23.0162  -144.071  -681
-26.7002  -144.706  -684
-30.4599  -145.552  -688
-34.113  -145.763  -689
-37.5575  -145.129  -686
-40.9706  -144.494  -683
-44.3523  -143.859  -680
-47.7026  -143.225  -677
-51.4  -143.648  -679
-54.8754  -143.436  -678
-58.4266  -143.436  -678
-61.4293  -142.167  -672
-64.4658  -141.109  -667
-67.5518  -140.263  -663
-70.9173  -140.051  -662
-74.7218  -140.686  -665
-79.7337  -143.436  -678
-91.62  -137.301  -649
-94.4337  -136.455  -645
-98.1153  -136.878  -647
-101.504  -136.878  -647
-105.704  -137.936  -652
10.7415  -144.139  -673
7.16294  -143.068  -668
3.64769  -142.426  -665
0.164598  -142.426  -665
-3.32348  -142.64  -666
-6.87317  -143.925  -672
-10.5012  -145.424  -679
-14.1611  -146.495  -684
-17.7437  -146.495  -684
-21.3263  -146.495  -684
-24.9453  -146.709  -685
-28.5748  -146.924  -686
-32.2148  -147.138  -687
-35.8131  -147.138  -687
-39.2967  -146.709  -685
-42.6967  -146.067  -682
-46.1332  -145.639  -680
-49.6217  -145.424  -679
-53.1782  -145.424  -679
-56.5675  -144.996  -677
-59.9358  -144.568  -675
-63.0952  -143.711  -671
-66.2126  -142.854  -667
-69.3926  -142.212  -664
-72.8705  -142.212  -664
-77.0382  -143.497  -670
-86.3181  -153.777  -718
-90.1975  -139.428  -651
-93.0321  -138.571  -647
-96.4209  -138.571  -647
-99.8097  -138.571  -647
-103.198  -138.571  -647
14.6057  -149.369  -689
10.7096  -145.467  -671
7.14149  -144.383  -666
3.65317  -144.383  -666
0.164103  -143.732  -663
-3.32847  -144.6  -667
-6.99591  -148.285  -684
-10.7177  -150.236  -693
-14.2232  -148.935  -687
-17.7697  -148.502  -685
-21.3263  -148.285  -684
-24.9818  -148.719  -686
-28.6165  -148.935  -687
-32.2617  -149.152  -688
-35.761  -148.719  -686
-39.2393  -148.285  -684
-42.6967  -147.851  -682
-46.0653  -147.201  -679
-49.6217  -147.201  -679
-53.0215  -146.768  -677
-56.4839  -146.551  -676
-59.6694  -145.684  -672
-62.9071  -145.033  -669
-65.8155  -143.732  -663
-69.0791  -143.299  -661
-72.8705  -143.949  -664
-77.6131  -146.334  -675
-86.9192  -156.74  -723
-90.0589  -140.914  -650
-93.0321  -140.264  -647
-95.9738  -139.613  -644
-99.5012  -139.83  -645
-102.56  -139.397  -643
14.4785  -149.855  -683
10.7096  -147.223  -671
7.13077  -145.906  -665
3.65317  -146.125  -666
0.165093  -146.345  -667
-14.3889  -152.488  -695
-17.8734  -151.172  -689
-21.3887  -150.514  -686
-25.0182  -150.733  -687
-28.6581  -150.952  -688
-32.3086  -151.172  -689
-35.761  -150.514  -686
-39.182  -149.855  -683
-42.6967  -149.636  -682
-46.0653  -148.978  -679
-49.6948  -149.197  -680
-53.0215  -148.539  -677
-56.3168  -147.881  -674
-59.4918  -147.003  -670
-63.0011  -147.003  -670
-66.1133  -146.125  -666
-69.2881  -145.467  -663
-73.09  -146.125  -666
-78.0731  -148.978  -679
-87.5203  -159.729  -728
-88.4478  -154.682  -705
-86.7819  -145.687  -664
-88.6285  -143.054  -652
-91.4788  -142.176  -648
-94.5801  -141.737  -646
-98.1153  -141.957  -647
-101.033  -141.299  -644
-104.244  -141.079  -643
12.4855  -149.2  -672
8.899  -148.09  -667
5.38923  -147.646  -665
-16.3022  -155.195  -699
-19.7064  -153.197  -690
-23.2528  -152.753  -688
-26.8173  -152.531  -687
-30.4599  -152.753  -688
-33.9149  -152.087  -685
-37.448  -151.865  -684
-40.9706  -151.643  -683
-44.2871  -150.754  -679
-47.8435  -150.754  -679
-51.1729  -150.088  -676
-54.5517  -149.644  -674
-57.8234  -148.978  -671
-60.9722  -148.09  -667
-64.4658  -148.09  -667
-67.4499  -146.98  -662
-71.0244  -147.202  -663
-75.396  -148.978  -671
-85.8489  -162.078  -730
-86.97  -157.193  -708
-85.171  -147.646  -665
-87.1877  -145.204  -654
-89.7818  -143.872  -648
-92.8883  -143.428  -646
-95.9738  -142.984  -644
-99.5012  -143.206  -645
-102.401  -142.54  -642
16.1957  -152.756  -680
12.4483  -150.509  -670
8.88566  -149.611  -666
5.42165  -150.285  -669
-19.7921  -155.676  -693
-23.2866  -154.778  -689
-26.8564  -154.553  -688
-30.4156  -154.328  -687
-33.9645  -154.104  -686
-37.5575  -154.104  -686
-40.9706  -153.43  -683
-44.2871  -152.531  -679
-47.7731  -152.307  -678
-51.1729  -151.857  -676
-54.5517  -151.408  -674
-57.7372  -150.509  -670
-60.9722  -149.835  -667
-64.4658  -149.835  -667
-67.8575  -149.611  -666
-71.2387  -149.386  -665
-75.2836  -150.509  -670
-86.9073  -166.01  -739
-84.8818  -155.227  -691
-84.4026  -148.038  -659
-87.0543  -146.691  -653
-89.7818  -145.567  -648
-92.8883  -145.118  -646
-95.9738  -144.669  -644
-99.3469  -144.669  -644
-102.56  -144.444  -643
18.0294  -154.99  -682
14.1817  -152.035  -669
10.6298  -151.354  -666
7.16294  -151.808  -668
-19.9063  -158.398  -697
-23.3542  -157.035  -691
-26.9344  -156.808  -690
-30.4599  -156.353  -688
-33.9645  -155.899  -686
-37.5575  -155.899  -686
-41.0306  -155.444  -684
-44.2871  -154.308  -679
-47.7026  -153.853  -677
-51.0215  -153.172  -674
-54.3089  -152.49  -671
-57.7372  -152.263  -670
-60.9722  -151.581  -667
-64.2725  -151.126  -665
-67.8575  -151.354  -666
-71.2387  -151.126  -665
-75.396  -152.49  -671
-83.9673  -162.262  -714
-82.6707  -152.944  -673
-84.0183  -149.081  -656
-86.7877  -147.945  -651
-89.7818  -147.263  -648
-92.8883  -146.808  -646
-96.1228  -146.581  -645
-99.0384  -145.899  -642
-102.56  -146.127  -643
19.8155  -156.774  -682
15.9576  -154.016  -670
12.4111  -153.556  -668
8.88566  -153.096  -666
-20.0491  -161.372  -702
-23.388  -159.073  -692
-26.9735  -158.843  -691
-30.5042  -158.383  -689
-34.0635  -158.153  -688
-37.5575  -157.694  -686
-41.0906  -157.464  -685
-44.3523  -156.314  -680
-47.7026  -155.625  -677
-51.0972  -155.165  -675
-54.3898  -154.475  -672
-57.7372  -154.016  -670
-61.0637  -153.556  -668
-64.2725  -152.866  -665
-67.8575  -153.096  -666
-71.2387  -152.866  -665
-75.5083  -154.475  -672
-79.9689  -156.314  -680
-81.4423  -152.407  -663
-83.7622  -150.338  -654
-86.6544  -149.418  -650
-89.5047  -148.499  -646
-92.7445  -148.269  -645
-96.4209  -148.729  -647
-99.1926  -147.809  -643
-103.039  -148.499  -646
21.5066  -157.861  -679
17.7122  -155.769  -670
14.1181  -154.839  -666
10.6139  -154.606  -665
-18.5219  -165.998  -714
-21.7316  -162.046  -697
-25.2367  -161.116  -693
-28.7415  -160.419  -690
-32.2617  -159.954  -688
-35.7089  -159.256  -685
-39.2393  -159.024  -684
-42.6967  -158.559  -682
-45.9975  -157.629  -678
-49.3294  -156.931  -675
-52.6299  -156.234  -672
-56.0661  -156.001  -671
-59.3143  -155.304  -668
-62.719  -155.071  -667
-65.9148  -154.374  -664
-69.2881  -154.141  -663
-72.9802  -154.606  -665
-77.1532  -156.001  -671
-79.5857  -153.909  -662
-82.3004  -152.514  -656
-85.0828  -151.352  -651
-87.9489  -150.422  -647
-91.3377  -150.422  -647
-94.5801  -150.189  -646
-97.812  -149.957  -645
-101.347  -150.189  -646
-109.108  -156.466  -673
-115.311  -160.186  -689
21.3482  -158.462  -674
17.6858  -157.287  -669
14.1393  -156.817  -667
10.6617  -157.052  -668
-18.4441  -167.161  -711
-21.794  -164.34  -699
-25.2731  -163.165  -694
-28.7831  -162.459  -691
-32.3086  -161.989  -689
-35.7089  -161.049  -685
-39.182  -160.578  -683
-42.5715  -159.873  -680
-45.9296  -159.168  -677
-49.3294  -158.697  -675
-52.7082  -158.227  -673
-55.9826  -157.522  -670
-59.3143  -157.052  -668
-62.8131  -157.052  -668
-66.014  -156.346  -665
-69.3926  -156.111  -664
-72.9802  -156.346  -665
-76.6933  -156.817  -667
-79.2251  -154.936  -659
-82.0494  -153.76  -654
-85.0828  -153.055  -651
-88.2207  -152.585  -649
-91.4788  -152.35  -648
-94.8729  -152.35  -648
-98.1153  -152.114  -647
-102.916  -154.23  -656
-111.702  -161.989  -689
-108.616  -152.585  -649
21.2532  -159.513  -671
17.7122  -159.275  -670
14.2029  -159.275  -670
10.7096  -159.513  -671
-18.3144  -167.833  -706
-21.8252  -166.407  -700
-25.2731  -164.98  -694
-28.7831  -164.267  -691
-32.2617  -163.554  -688
-35.6567  -162.603  -684
-39.0672  -161.89  -681
-42.4463  -161.177  -678
-45.794  -160.464  -675
-49.2563  -160.226  -674
-52.6299  -159.751  -672
-55.8155  -158.8  -668
-59.2255  -158.562  -667
-62.719  -158.562  -667
-65.8155  -157.611  -663
-69.3926  -157.849  -664
-72.8705  -157.849  -664
-76.3483  -157.849  -664
-79.1049  -156.422  -658
-81.924  -155.234  -653
-84.9521  -154.521  -650
-88.0848  -154.045  -648
-91.62  -154.283  -649
-94.7265  -153.807  -647
-98.4186  -154.283  -649
-105.426  -159.751  -672
-110.405  -161.89  -681
-111.127  -157.849  -664
21.3482  -161.99  -674
17.7386  -161.269  -671
14.2453  -161.509  -672
10.7256  -161.509  -672
7.22728  -161.99  -674
-18.2366  -168.959  -703
-21.794  -167.998  -699
-25.3095  -167.037  -695
-28.8248  -166.316  -692
-32.3086  -165.595  -689
-35.6567  -164.393  -684
-39.0672  -163.672  -681
-42.4463  -162.951  -678
-45.794  -162.23  -675
-49.2563  -161.99  -674
-52.5516  -161.269  -671
-55.899  -160.788  -669
-59.2255  -160.307  -667
-62.625  -160.067  -666
-65.9148  -159.586  -664
-69.4971  -159.827  -665
-72.8705  -159.586  -664
-76.1184  -159.106  -662
-78.9846  -157.904  -657
-81.924  -156.942  -653
-85.2135  -156.702  -652
-88.2207  -155.981  -649
-91.62  -155.981  -649
-95.0193  -155.981  -649
-99.0252  -156.942  -653
-110.446  -169.2  -704
-110.405  -163.672  -681
21.4432  -164.482  -677
17.7651  -163.267  -672
14.2241  -163.024  -671
10.7096  -163.024  -671
7.19511  -163.024  -671
-16.4189  -171.042  -704
-19.9349  -169.584  -698
-23.557  -169.341  -697
-27.0906  -168.612  -694
-30.5927  -167.883  -691
-33.9645  -166.669  -686
-37.2838  -165.454  -681
-40.7307  -164.968  -679
-44.2219  -164.725  -678
-47.5617  -163.996  -675
-50.9458  -163.51  -673
-54.2279  -162.781  -670
-57.651  -162.538  -669
-60.7894  -161.567  -665
-64.0792  -161.081  -663
-67.5518  -161.081  -663
-71.1316  -161.324  -664
-74.3847  -160.838  -662
-77.4992  -160.109  -659
-80.2139  -158.651  -653
-83.2499  -157.922  -650
-86.921  -158.408  -652
-89.9204  -157.679  -649
-93.0321  -157.193  -647
-96.5699  -157.436  -648
-103.666  -163.267  -672
-112.29  -171.042  -704
23.9363  -171.411  -698
19.6702  -166.254  -677
15.9576  -164.535  -670
12.4669  -164.78  -671
8.96571  -165.026  -672
5.45406  -165.271  -673
-14.7201  -174.603  -711
-18.1328  -171.656  -699
-21.6693  -170.674  -695
-25.3095  -170.674  -695
-28.9497  -170.674  -695
-32.3555  -169.446  -690
-35.7089  -168.218  -685
-39.0672  -167.236  -681
-42.4463  -166.499  -678
-45.794  -165.762  -675
-49.1833  -165.271  -673
-52.6299  -165.026  -672
-55.9826  -164.535  -670
-59.1367  -163.552  -666
-62.4369  -163.061  -664
-65.7162  -162.57  -662
-69.1836  -162.57  -662
-72.5412  -162.324  -661
-75.7734  -161.833  -659
-78.8644  -161.096  -656
-81.6731  -159.869  -651
-85.2135  -160.114  -652
-88.6285  -160.114  -652
-91.62  -159.377  -649
-95.3121  -159.869  -651
-100.845  -163.307  -665
21.8233  -171.003  -689
17.7915  -167.032  -673
14.1605  -165.791  -668
10.6617  -165.791  -668
7.19511  -166.536  -671
3.70802  -167.777  -676
0.169054  -169.514  -683
-14.6166  -175.223  -706
-18.1069  -173.237  -698
-21.6381  -172.244  -694
-25.2731  -172.244  -694
-28.9497  -172.492  -695
-32.4024  -171.5  -691
-35.761  -170.259  -686
-39.1246  -169.266  -682
-42.5089  -168.521  -679
-45.794  -167.529  -675
-49.1102  -166.784  -672
-52.5516  -166.536  -671
-55.8155  -165.791  -668
-58.9591  -164.799  -664
-62.2489  -164.302  -662
-65.617  -164.054  -661
-69.0791  -164.054  -661
-72.212  -163.309  -658
-75.5434  -163.061  -657
-78.7442  -162.565  -655
-81.7985  -161.82  -652
-85.0828  -161.572  -651
-88.7645  -162.068  -653
-92.467  -162.565  -655
-95.8977  -162.565  -655
-104.181  -170.507  -687
19.9898  -172.555  -688
16.0052  -168.542  -672
12.4297  -167.79  -669
8.92568  -167.79  -669
5.46217  -169.044  -674
1.94627  -170.298  -679
-1.61726  -171.05  -682
-5.28069  -174.06  -694
-9.0056  -175.816  -701
-12.7134  -176.317  -703
-16.3022  -175.314  -699
-19.8777  -174.562  -696
-23.3542  -173.308  -691
-27.0515  -173.809  -693
-30.7698  -174.311  -695
-34.113  -172.806  -689
-37.5028  -171.803  -685
-40.7907  -170.549  -680
-44.1567  -169.796  -677
-47.3503  -168.542  -672
-50.7944  -168.292  -671
-54.147  -167.79  -669
-57.2202  -166.536  -664
-60.6066  -166.285  -663
-63.9826  -166.034  -662
-67.1443  -165.282  -659
-70.4888  -165.031  -658
-73.8229  -164.78  -657
-77.1464  -164.529  -656
-80.3367  -164.028  -654
-83.6341  -163.777  -653
-87.1877  -164.028  -654
14.2029  -169.794  -670
10.6617  -169.287  -668
7.20583  -170.301  -672
3.71899  -171.821  -678
0.168064  -172.075  -679
-3.41829  -173.595  -685
-7.07773  -175.369  -692
-10.7641  -176.383  -696
-14.4303  -176.636  -697
-18.1069  -176.89  -698
-21.6381  -175.876  -694
-25.2003  -175.369  -692
-28.8664  -175.623  -693
-32.4962  -175.623  -693
-35.761  -173.849  -686
-39.1246  -172.835  -682
-42.4463  -171.821  -678
-45.7261  -170.808  -674
-49.0371  -170.047  -671
-52.395  -169.541  -669
-55.7319  -169.034  -667
-58.7815  -167.767  -662
-62.2489  -167.767  -662
-65.4184  -167.006  -659
-68.7656  -166.753  -658
-72.212  -166.753  -658
-75.0835  -165.486  -653
-78.624  -165.739  -654
-82.0494  -165.739  -654
-85.7363  -166.246  -656
14.2877  -172.571  -674
10.6937  -171.547  -670
7.21656  -172.315  -673
3.71899  -173.595  -678
0.168064  -173.851  -679
-3.4133  -175.132  -684
-7.05727  -176.668  -690
-10.7332  -177.692  -694
-14.4096  -178.204  -696
-18.0809  -178.46  -697
-21.6069  -177.436  -693
-25.1638  -176.924  -691
-28.7831  -176.924  -691
-32.4024  -176.924  -691
-35.8131  -175.9  -687
-39.182  -174.876  -683
-42.3837  -173.339  -677
-45.6583  -172.315  -673
-49.0371  -171.803  -671
-52.4733  -171.547  -670
-55.8155  -171.035  -668
-58.7815  -169.499  -662
-62.2489  -169.499  -662
-65.5177  -168.987  -660
-68.7656  -168.475  -658
-72.1023  -168.219  -657
-75.0835  -167.194  -653
-78.7442  -167.706  -655
-82.0494  -167.45  -654
14.4149  -175.887  -680
10.7096  -173.559  -671
7.21656  -174.076  -673
3.71899  -175.369  -678
0.168311  -175.887  -680
-3.41829  -177.18  -685
-7.04705  -178.215  -689
-10.6868  -178.732  -691
-14.3474  -179.249  -693
-17.9772  -179.249  -693
-21.5758  -178.991  -692
-25.2003  -178.991  -692
-28.7831  -178.732  -691
-32.2617  -177.956  -688
-35.761  -177.439  -686
-39.0099  -175.887  -680
-42.2585  -174.594  -675
-45.5226  -173.559  -671
-49.0371  -173.559  -671
-52.4733  -173.3  -670
-55.7319  -172.524  -667
-58.7815  -171.231  -662
-62.0608  -170.714  -660
-65.2199  -169.938  -657
-68.3476  -169.162  -654
-71.6633  -168.903  -653
-74.7386  -168.127  -650
-78.624  -169.162  -654
-82.3004  -169.679  -656
10.7894  -176.621  -676
7.25945  -176.882  -677
3.71899  -177.144  -678
0.168311  -177.666  -680
-3.4133  -178.711  -684
-7.03682  -179.756  -688
-10.6868  -180.54  -691
-14.306  -180.54  -691
-17.8994  -180.279  -690
-21.5446  -180.54  -691
-25.2003  -180.801  -692
-28.8248  -180.801  -692
-32.3086  -180.018  -689
-35.761  -179.234  -686
-39.0672  -177.927  -681
-42.2585  -176.36  -675
-45.5904  -175.576  -672
-49.1102  -175.576  -672
-52.4733  -175.053  -670
-55.6483  -174.008  -666
-58.7815  -172.963  -662
-62.2489  -172.963  -662
-65.4184  -172.179  -659
-68.4521  -171.134  -655
-71.6633  -170.612  -653
-75.0835  -170.612  -653
-78.7442  -171.134  -655
10.9012  -180.237  -683
7.28089  -179.182  -679
3.71351  -178.654  -677
0.168311  -179.445  -680
-3.41829  -180.765  -685
-7.02659  -181.293  -687
-10.6558  -181.82  -689
-14.2439  -181.557  -688
-17.8475  -181.557  -688
-21.4822  -181.82  -689
-25.1274  -182.084  -690
-28.7831  -182.348  -691
-32.3086  -181.82  -689
-35.761  -181.029  -686
-38.9525  -179.182  -679
-42.1959  -177.862  -674
-45.5226  -177.07  -671
-49.0371  -177.07  -671
-52.3167  -176.279  -668
-55.4812  -175.223  -664
-58.8703  -174.959  -663
-62.3429  -174.959  -663
-65.3192  -173.64  -658
-68.3476  -172.584  -654
-71.6633  -172.32  -653
-75.0835  -172.32  -653
-78.624  -172.584  -654
9.13915  -182.557  -685
5.50269  -180.958  -679
1.94054  -180.425  -677
-1.61726  -181.758  -682
-5.21221  -182.557  -685
-8.83859  -183.357  -688
-12.4421  -183.357  -688
-16.0224  -183.09  -687
-19.5921  -182.824  -686
-23.2528  -183.357  -688
-26.8564  -183.357  -688
-30.5485  -183.89  -690
-34.0635  -183.357  -688
-37.448  -182.291  -684
-40.6707  -180.692  -678
-43.961  -179.626  -674
-47.4208  -179.359  -673
-50.643  -178.293  -669
-53.9042  -177.494  -666
-57.134  -176.694  -663
-60.6066  -176.694  -663
-63.9826  -176.428  -662
-67.0424  -175.362  -658
-70.0603  -174.296  -654
-73.3734  -174.029  -653
-76.9112  -174.296  -654
9.20586  -185.695  -690
5.51889  -183.273  -681
1.9434  -182.466  -678
-1.61489  -183.273  -681
-5.18939  -183.542  -682
-8.8129  -184.619  -686
-12.4241  -184.888  -687
-15.9991  -184.619  -686
-19.5636  -184.35  -685
-23.1176  -184.081  -684
-26.8173  -184.888  -687
-30.4599  -185.157  -688
-34.014  -184.888  -687
-37.3385  -183.542  -682
-40.6707  -182.466  -678
-43.8958  -181.12  -673
-47.2798  -180.582  -671
-50.643  -180.044  -669
-53.9851  -179.505  -667
-57.134  -178.429  -663
-60.4238  -177.891  -661
-63.6926  -177.352  -659
-66.9405  -176.814  -657
-70.0603  -176.007  -654
-73.261  -175.469  -652
-76.9112  -176.007  -654
7.38812  -187.229  -689
3.74093  -185.327  -682
0.168559  -185.055  -681
-3.40831  -185.599  -683
-6.99591  -185.87  -684
-10.6094  -186.414  -686
-14.1818  -186.142  -685
-17.7437  -185.87  -684
-21.264  -185.327  -682
-24.9453  -186.142  -685
-28.6165  -186.686  -687
-32.2148  -186.686  -687
-35.761  -186.414  -686
-38.9525  -184.512  -679
-42.2585  -183.425  -675
-45.5226  -182.338  -671
-48.8909  -181.794  -669
-52.395  -181.794  -669
-55.6483  -180.979  -666
-58.8703  -180.164  -663
-62.0608  -179.349  -660
-65.5177  -179.349  -660
-68.6611  -178.533  -657
-71.6633  -177.446  -653
-75.0835  -177.446  -653
-78.9846  -178.533  -657
3.74642  -187.386  -683
0.168806  -187.111  -682
-3.40332  -187.111  -682
-6.98568  -187.386  -683
-10.563  -187.386  -683
-14.1611  -187.66  -684
-17.7697  -187.934  -685
-21.2951  -187.386  -683
-24.9089  -187.66  -684
-28.5332  -187.934  -685
-32.2617  -188.757  -688
-35.761  -188.209  -686
-38.8951  -186.014  -678
-42.2585  -185.191  -675
-45.4547  -183.819  -670
-48.7448  -182.996  -667
-52.2383  -182.996  -667
-55.5648  -182.447  -665
-58.7815  -181.624  -662
-61.8727  -180.527  -658
-65.2199  -180.252  -657
-68.3476  -179.429  -654
-71.5535  -178.881  -652
-75.0835  -179.155  -653
5.59994  -191.389  -691
1.9606  -189.45  -684
-1.622  -189.45  -684
-5.21221  -189.727  -685
-8.80005  -189.727  -685
-12.3517  -189.173  -683
-15.9757  -189.727  -685
-19.535  -189.45  -684
-23.0838  -189.173  -683
-26.6612  -189.173  -683
-30.3714  -190.004  -686
-34.1625  -191.112  -690
-37.2838  -188.619  -681
-40.6107  -187.511  -677
-44.0262  -186.957  -675
-47.1389  -185.295  -669
-50.5673  -185.018  -668
-53.8232  -184.187  -665
-57.134  -183.633  -663
-60.3324  -182.802  -660
-63.4993  -181.972  -657
-66.9405  -181.972  -657
-69.9532  -180.864  -653
-73.3734  -180.864  -653
-77.264  -181.972  -657
1.96347  -191.519  -685
-1.61726  -190.68  -682
-5.19699  -190.96  -683
-8.78721  -191.24  -684
-12.3698  -191.24  -684
-15.9524  -191.24  -684
-19.5065  -190.96  -683
-23.05  -190.68  -682
-26.6612  -190.96  -683
-30.3271  -191.519  -685
-34.014  -192.078  -687
-37.229  -190.121  -680
-40.5507  -189.003  -676
-43.8958  -188.164  -673
-47.2094  -187.325  -670
-50.5673  -186.766  -668
-53.7423  -185.648  -664
-57.2202  -185.648  -664
-60.3324  -184.529  -660
-63.4027  -183.411  -656
-66.7367  -183.132  -655
-70.0603  -182.852  -654
-73.4858  -182.852  -654
3.81773  -196.416  -696
0.169549  -193.312  -685
-3.40831  -192.747  -683
-6.99591  -193.029  -684
-10.563  -192.747  -683
-14.1197  -192.465  -682
-17.6659  -192.183  -681
-21.264  -192.465  -682
-24.9089  -193.029  -684
-28.4915  -193.029  -684
-32.2617  -194.158  -688
-35.6567  -193.029  -684
-38.8378  -191.054  -677
-42.1333  -189.925  -673
-45.5904  -189.643  -672
-48.964  -189.079  -670
-52.16  -187.95  -666
-55.4812  -187.385  -664
-58.8703  -187.103  -663
-61.8727  -185.692  -658
-65.2199  -185.41  -657
-68.5566  -185.128  -656
-71.8828  -184.845  -655
-75.7734  -185.974  -659
0.170291  -195.958  -688
-3.40831  -194.534  -683
-6.97545  -194.25  -682
-10.5321  -193.965  -681
-14.099  -193.965  -681
-17.64  -193.68  -680
-21.264  -194.25  -682
-24.8725  -194.534  -683
-28.5332  -195.104  -685
-32.2148  -195.674  -687
-35.5525  -194.25  -682
-38.7804  -192.541  -676
-42.0081  -191.116  -671
-45.5226  -191.116  -671
-49.0371  -191.116  -671
-52.0817  -189.408  -665
-55.4812  -189.123  -664
-58.7815  -188.553  -662
-61.7787  -187.129  -657
-65.1206  -186.844  -656
-68.4521  -186.559  -655
-71.8828  -186.559  -655
0.171776  -199.483  -694
-3.41829  -196.896  -685
-6.97545  -196.034  -682
-10.5321  -195.747  -681
-14.1197  -196.034  -682
-17.64  -195.459  -680
-21.264  -196.034  -682
-24.8725  -196.321  -683
-28.5748  -197.184  -686
-32.2148  -197.471  -687
-35.6046  -196.321  -683
-38.6657  -193.735  -674
-42.1333  -193.447  -673
-45.5904  -193.16  -672
-49.1102  -193.16  -672
-52.16  -191.435  -666
-55.3977  -190.573  -663
-58.6927  -189.998  -661
-61.8727  -189.135  -658
-65.2199  -188.848  -657
-68.4521  -188.273  -655
-71.773  -187.986  -654
0.173261  -203.04  -700
-3.41829  -198.689  -685
-6.96522  -197.529  -681
-10.5476  -197.819  -682
-14.1197  -197.819  -682
-17.64  -197.238  -680
-21.1704  -196.948  -679
-24.7997  -197.529  -681
-28.4915  -198.399  -684
-32.121  -198.689  -685
-35.5003  -197.529  -681
-38.6083  -195.208  -673
-42.1333  -195.208  -673
-45.6583  -195.208  -673
-49.1833  -195.208  -673
-52.2383  -193.468  -667
-55.3977  -192.308  -663
-58.6039  -191.437  -660
-61.8727  -190.857  -658
-65.1206  -190.277  -656
-68.4521  -189.987  -655
-71.8828  -189.987  -655
-1.64571  -203.115  -694
-5.19699  -199.896  -683
-8.76151  -199.603  -682
-12.3336  -199.603  -682
-15.8824  -199.31  -681
-19.4208  -199.018  -680
-22.9824  -199.018  -680
-26.5831  -199.31  -681
-30.2386  -199.896  -683
-33.8654  -200.188  -684
-36.9553  -197.554  -675
-40.3708  -196.969  -673
-43.961  -197.262  -674
-47.6322  -197.847  -676
-50.7944  -196.384  -671
-53.8232  -194.628  -665
-56.8755  -193.164  -660
-60.2409  -192.872  -659
-63.4993  -192.286  -657
-66.8386  -191.994  -656
-70.2746  -191.994  -656
-74.3847  -193.75  -662
-5.21221  -202.274  -685
-8.77436  -201.683  -683
-12.3336  -201.388  -682
-15.8591  -200.797  -680
-19.4493  -201.092  -681
-22.9824  -200.797  -680
-26.5441  -200.797  -680
-30.1943  -201.388  -682
-33.7664  -201.388  -682
-36.9005  -199.025  -674
-40.4308  -199.025  -674
-44.0914  -199.616  -676
-47.7026  -199.911  -677
-50.7944  -198.139  -671
-53.9042  -196.663  -666
-56.9616  -195.187  -661
-60.2409  -194.596  -659
-63.4993  -194.005  -657
-66.8386  -193.71  -656
-70.3817  -194.005  -657
-75.1712  -197.549  -669
-3.4632  -206.747  -694
-7.01636  -204.364  -686
-10.563  -203.47  -683
-14.1197  -203.172  -682
-17.64  -202.576  -680
-21.264  -203.172  -682
-24.7633  -202.576  -680
-28.2833  -202.278  -679
-31.9803  -203.172  -682
-35.344  -201.981  -678
-38.6083  -200.491  -673
-42.2585  -201.087  -675
-45.794  -201.087  -675
-49.1102  -200.193  -672
-52.2383  -198.704  -667
-55.3977  -197.512  -663
-58.6927  -196.916  -661
-61.8727  -196.022  -658
-65.2199  -195.725  -657
-68.4521  -195.129  -655
-72.4315  -196.618  -660
-80.3727  -208.237  -699
-7.02659  -206.459  -687
-10.563  -205.257  -683
-14.0783  -204.356  -680
-17.614  -204.055  -679
-21.264  -204.957  -682
-24.7633  -204.356  -680
-28.4499  -205.257  -683
-31.9335  -204.656  -681
-35.2397  -203.154  -676
-38.723  -202.853  -675
-42.3837  -203.454  -677
-45.7261  -202.553  -674
-48.964  -201.35  -670
-52.16  -200.148  -666
-55.3141  -198.946  -662
-58.6039  -198.345  -660
-61.8727  -197.744  -658
-65.1206  -197.143  -656
-68.4521  -196.843  -655
-72.5412  -198.646  -661
-80.8326  -211.268  -703
-7.05727  -209.166  -690
-10.563  -207.044  -683
-14.1197  -206.741  -682
-17.6659  -206.438  -681
-21.2328  -206.438  -681
-24.7997  -206.438  -681
-28.4082  -206.741  -682
-31.9335  -206.438  -681
-35.2918  -205.226  -677
-38.9525  -205.832  -679
-42.3837  -205.226  -677
-45.5904  -203.71  -672
-48.8909  -202.8  -669
-52.0817  -201.588  -665
-55.3977  -200.982  -663
-58.6039  -200.072  -660
-62.0608  -200.072  -660
-65.3192  -199.466  -658
-68.6611  -199.163  -657
-73.09  -201.891  -666
-7.10841  -212.501  -695
-10.5785  -209.137  -684
-14.1197  -208.526  -682
-17.6918  -208.526  -682
-21.2328  -208.22  -681
-24.7997  -208.22  -681
-28.4082  -208.526  -682
-31.8397  -207.609  -679
-35.344  -207.303  -678
-39.0672  -208.22  -681
-42.4463  -207.303  -678
-45.5904  -205.468  -672
-48.964  -204.857  -670
-52.2383  -203.939  -667
-55.4812  -203.022  -664
-58.5151  -201.493  -659
-62.0608  -201.799  -660
-65.3192  -201.188  -658
-68.6611  -200.882  -657
-73.7484  -205.468  -672
-8.90283  -213.702  -693
-12.3879  -211.235  -685
-15.9524  -210.927  -684
-19.4493  -210.002  -681
-22.9824  -209.694  -680
-26.5441  -209.694  -680
-30.0615  -209.385  -679
-33.6674  -209.694  -680
-37.229  -209.694  -680
-40.7907  -209.694  -680
-43.961  -207.843  -674
-47.2798  -206.918  -671
-50.5673  -205.993  -668
-53.9851  -205.685  -667
-57.0478  -204.143  -662
-60.3324  -203.526  -660
-63.6926  -203.218  -659
-66.9405  -202.601  -657
-70.9173  -204.143  -662
-10.6868  -214.894  -691
-14.1611  -212.717  -684
-17.7437  -212.717  -684
-21.2328  -211.784  -681
-24.8361  -212.095  -682
-28.4082  -212.095  -682
-31.9803  -212.095  -682
-35.5003  -211.784  -681
-39.0099  -211.473  -680
-42.3837  -210.54  -677
-45.7261  -209.607  -674
-48.964  -208.363  -670
-52.2383  -207.43  -667
-55.5648  -206.808  -665
-58.5151  -204.942  -659
-61.9668  -204.942  -659
-65.1206  -204.009  -656
-68.8701  -204.942  -659
-74.1874  -210.229  -676
-14.2439  -215.761  -688
-17.7697  -214.82  -685
-21.264  -213.879  -682
-24.8725  -214.193  -683
-28.4082  -213.879  -682
-32.0272  -214.193  -683
-35.6567  -214.507  -684
-38.9525  -212.939  -679
-42.3837  -212.311  -677
-45.794  -211.684  -675
-48.964  -210.116  -670
-52.2383  -209.175  -667
-55.5648  -208.548  -665
-58.6927  -207.294  -661
-62.0608  -206.98  -660
-65.4184  -206.667  -659
-69.1836  -207.607  -662
-74.2972  -212.311  -677
-16.0457  -217.561  -688
-19.5065  -215.98  -683
-23.0838  -215.98  -683
-26.6222  -215.664  -682
-30.1943  -215.664  -682
-33.9149  -216.613  -685
-37.3933  -215.98  -683
-40.6707  -214.399  -678
-44.1567  -214.083  -677
-47.4208  -212.818  -673
-50.4916  -210.921  -667
-53.8232  -210.288  -665
-57.0478  -209.34  -662
-60.4238  -209.023  -661
-63.7893  -208.707  -660
-67.4499  -209.34  -662
-71.8814  -212.186  -671
-16.139  -220.637  -692
-19.5636  -218.405  -685
-23.1176  -218.086  -684
-26.7002  -218.086  -684
-30.2386  -217.767  -683
-33.9149  -218.405  -685
-37.5028  -218.405  -685
-40.7307  -216.492  -679
-44.0914  -215.536  -676
-47.2798  -213.941  -671
-50.5673  -212.985  -668
-53.8232  -212.028  -665
-57.0478  -211.072  -662
-60.5152  -211.072  -662
-64.0792  -211.391  -663
-67.7556  -212.028  -665
-72.2028  -214.898  -674
-77.3061  -219.362  -688
-19.6778  -221.483  -689
-23.1852  -220.519  -686
-26.7783  -220.519  -686
-30.3271  -220.197  -685
-33.9645  -220.519  -686
-37.5575  -220.519  -686
-40.7307  -218.269  -679
-44.0262  -216.983  -675
-47.2094  -215.376  -670
-50.4916  -214.411  -667
-53.9851  -214.411  -667
-57.134  -213.125  -663
-60.6066  -213.125  -663
-64.1759  -213.447  -664
-67.9594  -214.411  -667
-72.3099  -216.983  -675
-77.0814  -220.519  -686
-21.5446  -223.934  -691
-25.0546  -222.962  -688
-28.6998  -223.286  -689
-32.2148  -222.638  -687
-35.7089  -221.99  -685
-39.0672  -220.694  -681
-42.4463  -219.721  -678
-45.7261  -218.425  -674
-48.964  -217.129  -670
-52.4733  -217.129  -670
-55.7319  -216.157  -667
-59.0479  -215.508  -665
-62.531  -215.508  -665
-66.2126  -216.157  -667
-70.1242  -217.453  -671
-74.5166  -220.045  -679
-23.4556  -226.722  -694
-26.9344  -225.416  -690
-30.5485  -225.416  -690
-34.0635  -224.762  -688
-37.5028  -223.782  -685
-40.7907  -222.149  -680
-44.1567  -221.169  -677
-47.3503  -219.535  -672
-50.5673  -218.229  -668
-53.9851  -217.902  -667
-57.5649  -218.229  -668
-60.8808  -217.575  -666
-64.4658  -217.902  -667
-68.3669  -219.209  -671
-72.3099  -220.515  -675
-76.7443  -223.129  -683
-26.9735  -227.55  -691
-30.637  -227.88  -692
-34.0635  -226.563  -688
-37.5575  -225.904  -686
-40.8507  -224.257  -681
-44.1567  -222.94  -677
-47.4208  -221.623  -673
-50.643  -220.306  -669
-54.0661  -219.976  -668
-57.7372  -220.635  -670
-60.9722  -219.647  -667
-64.6591  -220.306  -669
-68.6726  -221.952  -674
-72.6313  -223.269  -678
-76.8567  -225.245  -684
-28.9497  -230.686  -695
-32.4493  -229.69  -692
-35.9695  -229.027  -690
-39.4688  -228.363  -688
-42.5089  -225.375  -679
-45.9296  -224.712  -677
-49.1102  -223.052  -672
-52.3167  -221.724  -668
-55.8155  -221.724  -668
-59.3143  -221.724  -668
-62.8131  -221.724  -668
-66.9075  -223.716  -674
-70.9602  -225.375  -679
-74.8459  -226.371  -682
-78.9929  -228.031  -687
-32.7306  -233.508  -698
-36.3866  -233.508  -698
-39.7556  -231.836  -693
-42.6341  -227.821  -681
-45.8618  -226.149  -676
-49.1102  -224.81  -672
-52.4733  -224.141  -670
-55.899  -223.807  -669
-59.4031  -223.807  -669
-62.9071  -223.807  -669
-67.106  -226.149  -676
-71.1693  -227.821  -681
-75.0654  -228.825  -684
-33.1058  -238.032  -706
-36.8036  -238.032  -706
-39.9851  -234.998  -697
-42.8219  -230.615  -684
-45.9296  -228.255  -677
-49.1102  -226.569  -672
-52.395  -225.557  -669
-55.9826  -225.894  -670
-59.4031  -225.557  -669
-63.0011  -225.894  -670
-67.2053  -228.255  -677
-71.1693  -229.603  -681
-75.0654  -230.615  -684
-33.6216  -243.617  -717
-37.1164  -241.918  -712
-40.2146  -238.181  -701
-42.9472  -233.084  -686
-46.1332  -231.045  -680
-49.2563  -229.007  -674
-52.5516  -227.987  -671
-56.2332  -228.667  -673
-59.7582  -228.667  -673
-63.3772  -229.007  -674
-67.5031  -231.045  -680
-71.3783  -232.065  -683
-75.2849  -233.084  -686
-35.5488  -245.835  -718
-38.9263  -243.439  -711
-41.5705  -237.276  -693
-44.6132  -234.194  -684
-47.8435  -232.482  -679
-51.0215  -230.77  -674
-54.3898  -230.086  -672
-58.2543  -231.455  -676
-61.795  -231.455  -676
-65.6256  -232.482  -679
-69.2839  -232.825  -680
-73.2741  -234.194  -684
-37.5334  -248.404  -720
-40.3293  -242.539  -703
-43.1976  -238.054  -690
-46.6081  -237.019  -687
-49.841  -235.294  -682
-53.0215  -233.569  -677
-56.5675  -233.569  -677
-60.3798  -234.604  -680
-63.9414  -234.604  -680
-67.5031  -234.604  -680
-71.4828  -235.984  -684
-75.5043  -237.364  -688
-40.5014  -245.421  -706
-43.6358  -242.293  -697
-46.8116  -239.859  -690
-49.9141  -237.426  -683
-53.0998  -235.688  -678
-56.5675  -235.34  -677
-60.291  -236.036  -679
-63.7534  -235.688  -678
-67.5031  -236.383  -680
-71.5873  -238.121  -685
-42.2304  -246.568  -704
-45.9829  -246.919  -705
-48.7595  -242.365  -692
-51.7027  -239.213  -683
-54.9564  -237.812  -679
-58.599  -238.163  -680
-61.9778  -237.462  -678
-65.8189  -238.513  -681
-45.9829  -248.763  -705
-49.1119  -245.94  -697
-51.8541  -241.706  -685
-55.1992  -240.648  -682
-58.599  -239.942  -680
-62.1606  -239.942  -680
-66.0122  -241  -683
-49.4642  -249.542  -702
-52.1569  -244.92  -689
-55.442  -243.499  -685
-58.9437  -243.143  -684
-62.4348  -242.788  -683
-52.384  -247.798  -692
-55.6848  -246.365  -688
-59.0298  -245.291  -685
