302
-121.923  -241.15  -652
-144.86  -234.094  -655.333
-135.338  -232.447  -656.333
-129.274  -235.981  -659
-118.403  -236.671  -653.429
-172.032  -224.599  -651
-167.173  -220.677  -652
-150.329  -226.997  -653
-149.868  -222.895  -651
-133.227  -226.997  -653
-123.92  -224.61  -653.5
-112.941  -226.445  -652.4
-108.596  -223.066  -654
-171.373  -217.409  -655
-168.219  -216.534  -653.4
-121.257  -211.62  -653
-111.721  -218.203  -652.25
-105.823  -215.807  -652.75
-171.551  -204.264  -651.333
-167.43  -209.911  -653
-121.925  -207.883  -652
-100.427  -202.454  -651
-97.017  -200.751  -651
-176.565  -195.088  -652
-93.6791  -194.938  -651.5
-180.556  -187.123  -651
-178.851  -188.827  -651
-189.08  -175.199  -651
-171.179  -165.831  -651
-168.881  -161.818  -652
-183.101  -152.049  -654
-174.877  -158.121  -653.167
-167.686  -153.76  -654
-153.803  -241.839  -642.5
-148.217  -242.914  -642
-134.695  -243.253  -643.188
-125.661  -243.467  -647.333
-118.814  -240.891  -649
-162.843  -233.288  -645
-154.596  -234.119  -644.158
-144.815  -235.676  -643.714
-135.219  -235.641  -643.286
-124.075  -234.49  -645.769
-170.065  -222.553  -650
-164.797  -226.003  -647
-155.179  -225.662  -645.917
-143.649  -224.51  -646.727
-135.575  -224.415  -645.571
-122.776  -225.112  -646.6
-116.466  -224.343  -647
-162.026  -214.959  -647.625
-155.705  -215.073  -643.4
-149.245  -217.794  -641
-121.159  -214.074  -647
-115.253  -215.042  -645.75
-105.132  -211.008  -648.5
-164.415  -205.242  -644.889
-156.964  -204.867  -641.667
-145.593  -207.227  -644.667
-120.833  -202.731  -644.667
-114.373  -205.798  -643.111
-105.228  -205.095  -646.059
-98.4186  -201.832  -649
-173.127  -193.743  -648.714
-166.472  -195.281  -643.5
-156.922  -198.661  -641.5
-142.53  -197.667  -641
-126.582  -198.506  -641
-103.752  -196.662  -643.875
-97.207  -194.542  -646.625
-180.001  -183.152  -649
-174.739  -184.637  -646.091
-169.521  -184.391  -641.5
-100.72  -184.536  -642
-94.5879  -185.843  -643.8
-88.7947  -182.585  -647
-192.195  -171.529  -650
-184.337  -174.309  -647.692
-175.482  -174.58  -644.385
-90.4906  -174.185  -641
-88.155  -173.87  -643.6
-192.935  -165.117  -646.2
-184.207  -165.155  -646.588
-174.928  -165.143  -648.313
-164.583  -164.193  -644.909
-159.441  -165.927  -641.5
-84.1039  -167.288  -643.5
-75.6843  -165.606  -643.5
-68.7748  -161.018  -642
-201.068  -152.862  -643
-194.137  -155.024  -642.667
-185.075  -155.379  -645.1
-177.26  -158.892  -649.333
-162.412  -156.044  -646.625
-157.638  -150.704  -641
-96.2776  -154.725  -643.8
-86.3249  -156.195  -645
-77.3016  -152.013  -643
-63.8301  -152.857  -643
-204.508  -145.97  -642.333
-193.765  -143.313  -643
-188.403  -146.454  -645.2
-160.063  -149.724  -644
-155.96  -147.349  -641
-88.812  -149.027  -641
-74.2394  -148.421  -645.667
-68.7748  -144.219  -642
-201.702  -137.57  -642.333
-195.39  -137.864  -643.714
-152.961  -241.358  -639
-143.241  -243.849  -639.5
-136.441  -246.761  -640
-152.364  -239.225  -640
-147.755  -237.131  -640
-127.782  -234.201  -640
-151.526  -221.641  -640
-151.408  -215.195  -639.5
-147.181  -214.098  -637.5
-134.871  -217.931  -636.5
-123.337  -215.488  -633
-115.491  -210.756  -640
-162.421  -200.708  -640
-153.492  -203.092  -637.714
-145.761  -204.377  -635.385
-135.409  -204.488  -636.125
-125.59  -206.388  -636
-114.101  -203.822  -639.25
-161.194  -194.011  -637.8
-155.224  -194.082  -636.727
-145.54  -195.221  -634.133
-134.751  -193.631  -636
-124.982  -194.702  -634.818
-114.349  -194.247  -634.933
-106.996  -193.249  -639.333
-163.974  -183.906  -636.9
-154.922  -184.856  -634.444
-145.286  -185.239  -631.8
-133.635  -186.017  -632.444
-124.256  -185.622  -632.214
-114.723  -185.124  -632.529
-105.03  -184.84  -637.588
-97.8147  -181.307  -639.5
-171.372  -172.805  -639
-164.454  -173.917  -636.412
-155.769  -174.882  -634.588
-148.569  -174.77  -631
-138.654  -178.072  -631
-122.921  -177.721  -631.429
-115.867  -175.624  -631.1
-104.607  -175.179  -633.667
-94.9406  -174.18  -637.105
-162.875  -167.239  -638.5
-155.224  -164.974  -635.667
-125.633  -168.432  -632
-115.519  -168.166  -631
-104.611  -164.32  -632.647
-95.0526  -164.958  -635.6
-86.6423  -163.497  -637.364
-75.3995  -161.5  -638
-194.162  -151.506  -639.667
-189.238  -152.143  -640
-154.225  -154.236  -633.857
-110.737  -158.51  -632
-103.083  -156.14  -634
-93.3975  -156.246  -635.167
-83.4718  -158.229  -638.667
-74.8206  -155.18  -638.214
-67.4286  -154.201  -637.25
-202.227  -144.839  -639.429
-195.11  -144.919  -639.385
-152.716  -144.035  -633.8
-123.339  -146.416  -635.125
-104.688  -143.043  -632.571
-95.1959  -146.514  -634.727
-86.451  -143.704  -636
-70.9623  -147.724  -639
-65.7917  -146.085  -636.818
-198.671  -138.313  -638
-154.639  -136.383  -633.875
-136.273  -134.956  -635.333
-125.633  -138.666  -632
-104.681  -136.495  -634
-83.3408  -136.314  -634.5
-141.257  -124.477  -633.8
-139.753  -127.894  -636
-107.426  -128.743  -632
-95.9931  -123.98  -633
-86.1373  -126.32  -633.667
-158.484  -113.68  -631
-142.766  -116.477  -632.75
-92.3839  -116.982  -631
-144.067  -103.544  -633
-146.674  -95.1675  -632.333
-147.731  -88.5759  -634.5
-142.474  -211.06  -626
-135.606  -212.586  -627.6
-125.028  -211.835  -625.875
-142.36  -207.611  -625.5
-134.666  -206.345  -623
-125.498  -205.862  -625.167
-141.734  -192.627  -630
-134.205  -195.302  -625.667
-124.844  -197.231  -625
-142.484  -185.662  -629.667
-135.15  -184.155  -629.222
-125.717  -184.835  -629.667
-144.623  -174.843  -628.714
-135.485  -174.749  -628.471
-126.285  -174.041  -628.786
-113.35  -174.572  -629.429
-107.825  -171.885  -629.5
-146.062  -165.036  -628.5
-135.993  -164.798  -627.611
-125.686  -164.695  -628.368
-114.657  -165.082  -629
-107.001  -167.765  -629.5
-145.82  -154.905  -627.444
-135.686  -154.604  -626.222
-125.654  -154.725  -626.895
-114.981  -154.653  -626.75
-106.281  -152.152  -628.5
-144.196  -145.268  -626.357
-135.539  -144.901  -626.778
-126.776  -144.896  -626.75
-113.677  -145.257  -624.786
-104.913  -145.567  -627.533
-93.646  -141.149  -628.333
-87.1493  -141.299  -629
-151.152  -132.858  -628
-144.058  -134.6  -625.765
-135.598  -138.681  -628.333
-125.952  -135.582  -626.091
-113.922  -137.138  -622.25
-107.181  -135.452  -627.333
-94.8248  -135.037  -624.5
-86.8855  -134.852  -625.167
-152.822  -124.621  -625.636
-145.227  -125.396  -624.944
-139.862  -129.778  -629
-125.375  -125.377  -623.5
-106.686  -123.278  -625.25
-93.4081  -126.086  -624.333
-86.7398  -124.176  -624.778
-152.701  -115.195  -624.545
-144.756  -114.57  -623.5
-123.648  -114.506  -622
-116.815  -112.377  -623.8
-104.656  -115.392  -625.333
-90.945  -115.452  -628.667
-85.2094  -117.908  -623.875
-75.3107  -114.5  -626.5
-160.763  -103.115  -627
-155.125  -104.636  -624.111
-145.152  -105.122  -624.727
-122.56  -107.177  -622
-114.054  -108.978  -623
-83.8254  -103.213  -622.667
-76.2148  -105.219  -624.917
-161.191  -94.6195  -628.667
-155.833  -95.3646  -622.286
-147.969  -95.751  -625
-99.2907  -91.7872  -622.5
-80.997  -98.4465  -626
-75.2245  -98.8168  -625.75
-155.314  -86.1001  -626.824
-149.269  -87.5256  -627
-116.941  -84.2545  -621
-100.84  -84.3902  -622
-99.3704  -89.4164  -623
-137.861  -205.251  -620
-122.099  -135.958  -619.667
-114.892  -132.959  -618.727
-121.084  -124.129  -617.25
-114.7  -124.959  -616.316
-108.536  -124.195  -617.6
-89.1497  -126.299  -620
-146.25  -113.32  -620
-122.248  -114.899  -617.286
-114.834  -115.562  -614.071
-107.215  -114.512  -615.273
-83.5117  -113.017  -618.333
-77.6344  -112.778  -618.8
-151.54  -104.314  -619.5
-148.205  -105.175  -619.8
-115.315  -104.695  -616.333
-105.266  -104.807  -614.182
-82.7529  -107.119  -619
-78.501  -108.321  -619.25
-152.589  -94.5616  -618
-149.226  -92.2304  -620
-120.839  -96.4709  -616
-117.105  -94.2684  -613.333
-101.791  -94.4755  -614.667
-99.8671  -94.859  -616
-120.937  -87.6762  -616.5
-113.695  -85.8967  -615.733
-104.91  -84.5784  -614.952
-111.521  -78.9963  -618
-104.383  -77.0708  -614.111
-107.194  -103.829  -609.5
-112.793  -94.8951  -609.333
-106.122  -94.6898  -607.769
