282
-172.605  -322.183  -622.333
-165.865  -328.256  -621.5
-172.929  -317.078  -623.5
-160.074  -331.26  -618
-154.717  -331.8  -616
-144.566  -330.723  -614
-164.463  -323.257  -617
-155.392  -325.046  -614.4
-145.835  -326.07  -611.9
-136.527  -325.903  -614
-170.334  -317.731  -620
-165.073  -316.423  -616.786
-156.852  -316.307  -611.75
-141.674  -321.391  -608.5
-137.235  -328.568  -610
-154.889  -313.56  -608.75
-145.467  -315.041  -604.364
-136.165  -315.902  -604.636
-126.879  -312.606  -603.833
-144.653  -309.567  -601
-122.719  -308.251  -601.5
-116.226  -303.599  -602.333
-114.056  -298.02  -601.5
-88.8531  -241.359  -601.5
-91.4428  -238.017  -603
-96.44  -222.672  -601.333
-133.304  -310.363  -599.5
-142.844  -305.82  -596.75
-135.269  -304.232  -594.917
-125.031  -303.725  -596.818
-119.272  -303.557  -600
-142.246  -299.777  -591
-125.719  -297.52  -593.385
-114.935  -294.562  -596.875
-108.607  -292.915  -597.5
-111.292  -287.405  -591
-104.072  -286.61  -591.75
-95.8272  -283.825  -592.667
-89.7747  -280.147  -592
-83.7497  -276.47  -593.25
-78.1055  -271.615  -593.667
-72.7782  -264.102  -592.5
-69.8552  -262.442  -594
-68.7285  -258.023  -591
-87.0822  -242.026  -593.5
-94.7519  -234.756  -593
-81.7326  -238.948  -595.5
-78.9222  -235.224  -592
-96.4922  -225.29  -594.417
-95.7101  -214.019  -594.2
-89.9264  -217.002  -593
-122.332  -202.694  -592
-97.3618  -208.538  -591
-122.126  -199.259  -591
-143.609  -294.444  -585
-134.752  -294.493  -587.286
-125.685  -291.242  -588.333
-118.523  -290.809  -588.5
-134.589  -287.901  -582
-124.499  -285.15  -584
-115.735  -284.684  -586.867
-105.117  -282.464  -588.222
-98.7422  -282.288  -590
-123.23  -273.398  -581.6
-115.038  -275.734  -583.235
-105.628  -274.836  -585.368
-95.0477  -274.056  -586.75
-86.4834  -273.149  -588.6
-121.513  -263.969  -581.714
-113.023  -265.192  -582.222
-104.986  -264.918  -583
-94.8363  -264.516  -584.5
-84.5601  -264.189  -584.75
-77.2842  -263.817  -587.444
-69.1496  -265.945  -588
-121.651  -256.846  -581.333
-113.904  -256.306  -581.364
-105.007  -254.7  -583.96
-94.8074  -255.055  -584.792
-85.4858  -255.493  -586.381
-75.187  -254.749  -585.409
-66.7894  -254.077  -586.2
-112.073  -244.814  -581.667
-105.578  -245.015  -583.955
-95.234  -244.913  -587.808
-84.592  -245.907  -587.722
-75.5167  -244.781  -584.727
-65.3408  -245.701  -583.5
-56.5405  -243.158  -585
-120.923  -234.857  -581.5
-113.638  -234.989  -581.692
-105.164  -235.095  -585.462
-96.6336  -238.317  -588.167
-81.7458  -239.061  -590
-74.5069  -235.261  -585.667
-68.3263  -230.854  -581
-52.1224  -238.41  -582.75
-47.3465  -232.95  -585
-112.579  -227.239  -582.556
-104.301  -225.054  -584.529
-99.2243  -226.404  -589.2
-65.9286  -226.338  -582.7
-56.2503  -222.079  -583.071
-45.5421  -223.7  -583.167
-123.84  -211.612  -581.6
-114.473  -216.023  -582
-102.061  -215.064  -582.5
-97.4856  -214.867  -588
-52.6471  -219.149  -584.25
-47.3039  -218.479  -584.5
-123.507  -205.241  -584.867
-116.059  -205.845  -582.8
-98.0347  -205.832  -584.778
-122.711  -193.81  -582.75
-118.112  -195.243  -585.167
-94.3123  -193.877  -583.333
-89.6282  -195.888  -581
-122.878  -189.09  -583.5
-115.826  -185.778  -582.667
-91.1497  -180.685  -581
-151.949  -281.128  -575
-144.247  -285.055  -576.333
-135.129  -282.839  -576.778
-127.432  -280.918  -577.667
-152.915  -276.157  -573
-144.322  -275.547  -572
-135.249  -275.396  -574.455
-126.035  -275.104  -578.316
-118.334  -271.433  -580
-162.854  -265.727  -571
-143.625  -265.298  -572.308
-135.235  -265.08  -574.391
-126.286  -265.239  -578
-116.099  -264.977  -579.923
-142.667  -253.961  -571
-134.583  -255.012  -573.143
-126.066  -254.927  -577.944
-116.319  -254.347  -579.8
-140.714  -245.38  -571.167
-135.114  -245.05  -572.478
-125.306  -245.096  -576.88
-115.791  -244.924  -578.895
-66.6336  -240.872  -579.5
-59.0951  -241.08  -580
-141.295  -233.432  -571.5
-134.821  -235.051  -573.167
-125.24  -235.098  -576.5
-116.685  -235.853  -579.364
-65.0453  -235.05  -578.857
-55.6129  -233.679  -576.467
-49.9815  -231.215  -580
-141.559  -225.835  -572.143
-134.758  -225.123  -573
-125.337  -224.964  -575.962
-116.496  -223.993  -578.429
-104.663  -221.35  -580
-61.6715  -226.086  -577.714
-54.9521  -226.545  -577.5
-48.6313  -225.009  -579
-142.628  -212.148  -572.143
-134.972  -215.313  -574.379
-125.444  -215.55  -578.158
-115.398  -214.93  -578.833
-106.659  -215.094  -579.5
-53.0193  -219.833  -580
-150.891  -205.216  -571
-144.004  -206.61  -573.833
-135.046  -204.606  -573.571
-127.553  -205.326  -578
-112.701  -205.55  -579.667
-104.702  -204.68  -577.579
-99.9339  -202.031  -579
-152.386  -199.986  -571
-142.044  -196.421  -571.5
-135.247  -194.469  -571.25
-127.511  -194.872  -576.2
-113.166  -194.051  -578.167
-104.461  -194.762  -575.167
-97.8449  -194.837  -576.75
-133.437  -187.824  -571.5
-127.612  -184.99  -573.933
-112.247  -185.487  -577
-105.365  -186.384  -573
-95.1623  -185.586  -574.364
-130.183  -179.383  -572
-128  -177.518  -575.667
-111.097  -177.003  -574
-109.339  -176.595  -572.667
-91.7883  -174.992  -572.333
-88.9999  -171.896  -574.5
-130.183  -167.409  -572
-105.715  -162.917  -572
-90.9351  -165.609  -572
-101.722  -157.68  -572
-152.757  -271.585  -568.667
-144.53  -272.48  -569.5
-162.056  -264.268  -567.333
-154.981  -265.482  -566.222
-147.126  -266.054  -568.5
-163.042  -255.05  -562.727
-154.487  -255.319  -564.217
-146.17  -255.736  -568.167
-137.192  -254.821  -570
-165.586  -246.505  -561.25
-154.445  -245.439  -563.409
-145.899  -244.929  -567.3
-161.614  -235.596  -561.5
-154.047  -234.757  -563.182
-145.475  -235.418  -567.875
-171.327  -221.097  -562
-164.743  -226.654  -564.667
-155.018  -224.813  -563.773
-146.323  -224.936  -567.8
-131.221  -224.991  -570
-161.253  -214.629  -563.667
-154.301  -215.108  -563
-145.642  -215.434  -568.045
-162.94  -209.695  -561
-152.427  -204.997  -564.25
-148.872  -208.217  -569
-153.003  -197.146  -565
-140.841  -194.213  -568.667
-134.834  -194.34  -569.5
-129.728  -192.179  -570
-154.4  -188.011  -562
-142.066  -184.783  -565.625
-135.637  -183.943  -567.333
-117.684  -184.559  -569.5
-102.814  -182.404  -569.75
-96.7191  -182.165  -569
-142.523  -176.038  -562.889
-135.023  -174.892  -565.043
-129.184  -173.682  -569.25
-103.891  -175.29  -567.467
-95.4613  -174.515  -566.684
-89.424  -174.281  -570
-132.487  -166.948  -563.5
-129.652  -167.721  -569.667
-103.116  -166.052  -567
-95.9579  -164.945  -565.85
-94.2858  -157.771  -564.3
-161.183  -250.35  -560
-164.15  -243.498  -558.563
-159.017  -243.729  -559.6
-173.383  -232.606  -556.8
-165.793  -235.437  -558.783
-158.495  -233.988  -560
-174.198  -224.844  -553.85
-167.528  -227.199  -558.2
-194.668  -210.283  -551
-180.565  -211.387  -552
-175.52  -216.667  -554
-194.844  -208.31  -551.5
-185.621  -204.408  -552
-162.444  -203.206  -556.429
-156.481  -204.582  -557.412
-162.578  -196.172  -553.667
-155.734  -194.764  -555.313
-171.894  -180.333  -552
-162.922  -180.006  -551
-154.834  -185.849  -555
-171.481  -176.308  -553
-162.885  -176.914  -552.286
-158.662  -175.46  -554.857
-142.851  -171.956  -560
-161.772  -167.328  -552
-142.987  -168.226  -558.8
-137.065  -166.387  -559.333
-181.905  -220.819  -547.333
-178.144  -222.09  -549
-191.537  -211.616  -547
-184.435  -213.874  -545.955
-178.561  -216.552  -548.625
-191.099  -205.431  -547.667
-186.51  -206.19  -548.8
-163.919  -191.019  -549.5
-159.745  -191.192  -550
-163.604  -184.158  -547.389
-157.441  -184.612  -548.538
-165.843  -173.79  -548.438
-157.921  -177.807  -548.667
-164.75  -166.438  -546.533
