237
-96.2885  -234.854  -653
-91.1205  -227.329  -651.5
-93.3196  -242.589  -649
-92.0422  -234.275  -644.8
-86.1456  -233.506  -644.778
-91.62  -229.568  -649
-87.745  -227.337  -645.5
-88.9505  -219.814  -642
-83.9066  -196.296  -642
-70.9014  -250.72  -631
-54.4338  -252.638  -631.667
-90.2789  -241.547  -639.5
-84.3807  -243.143  -635.667
-76.7003  -244.846  -631.727
-47.7664  -247.418  -631
-90.3495  -237.55  -640
-84.2472  -236.062  -636.9
-78.1336  -233.942  -634.143
-83.4504  -226.968  -638.5
-76.9942  -226.847  -633.5
-87.9806  -211.319  -635
-91.4399  -202.782  -636
-87.1918  -203.214  -637.333
-87.1452  -194.99  -635
-87.7035  -181.949  -633
-79.5403  -187.21  -634
-75.9791  -179.18  -632
-73.3802  -165.689  -631
-64.1131  -251.26  -629.25
-57.59  -251.972  -630
-71.3345  -244.992  -629
-64.6789  -245.896  -626.75
-53.7834  -245.84  -625.818
-46.0644  -241.699  -624.75
-74.0067  -235.786  -628
-68.2092  -235.697  -624
-38.9404  -235.752  -622
-80.5603  -221.946  -629
-73.7748  -224.613  -627.286
-69.2161  -225.914  -621.8
-83.8053  -213.946  -622.5
-74.5914  -214.967  -624.5
-69.8901  -212.966  -622
-97.0303  -202.196  -629
-83.0992  -203.955  -626.417
-76.2044  -204.134  -624.143
-94.6849  -194.186  -624.5
-84.9583  -196.004  -625
-75.8929  -195.103  -622.923
-91.3591  -180.995  -624
-88.7966  -182.446  -629
-74.8567  -185.237  -624.571
-69.7778  -180.125  -621
-91.0663  -177.16  -622
-88.7653  -175.815  -623
-72.5478  -175.26  -626.857
-72.1515  -166.406  -627.5
-69.8901  -164.954  -622
-70.452  -158.076  -627
-68.1515  -159.001  -621
-68.3148  -146.353  -622.5
-58.2995  -241.483  -620
-62.8486  -235.198  -618.4
-55.5881  -235.394  -615.1
-45.0132  -235.092  -616
-37.7895  -231.248  -616.5
-63.7226  -225.249  -616.727
-56.8058  -226.346  -613.364
-44.6523  -229.984  -611
-34.3636  -226.726  -613
-81.936  -213.986  -618.667
-76.0313  -212.269  -616.833
-65.0713  -215.191  -614.412
-58.0188  -216.243  -611.333
-28.6979  -217.549  -612
-81.3538  -208.471  -618.333
-74.285  -204.734  -613.9
-65.5798  -206.131  -614.583
-95.8478  -191.998  -613.5
-89.0626  -193.08  -615.667
-75.1741  -195.174  -617.2
-67.3764  -193.965  -613.9
-92.3745  -184.12  -612.667
-87.9994  -187.123  -612
-71.2891  -187.947  -620
-66.9609  -184.802  -615.625
-91.503  -179.701  -614
-86.9614  -175.451  -616
-67.1122  -173.989  -615.125
-66.1302  -164.756  -615.556
-66.2944  -154.442  -615.8
-66.1489  -142.753  -617.5
-62.2536  -128.462  -611
-52.5223  -231.014  -609.5
-47.7742  -231.203  -610
-52.7168  -225.125  -608.667
-45.5998  -225.003  -606.182
-36.3722  -223.276  -606.429
-54.3627  -215.199  -607
-47.3841  -216.47  -601
-34.3636  -218.004  -603.143
-62.5002  -201.909  -609.5
-54.9942  -205.224  -604
-26.2681  -204.231  -602.25
-91.8978  -190.045  -606
-62.1098  -194.967  -608
-54.8381  -196.651  -604.533
-49.048  -199.559  -606
-26.7188  -197.156  -603.5
-90.9069  -189.704  -610
-87.5681  -187.799  -609
-61.9395  -185.066  -607.875
-57.7708  -183.106  -603.167
-61.9282  -176.111  -607.778
-57.9763  -173.983  -605.333
-62.3477  -166.212  -608
-56.5478  -167.302  -605.5
-61.9841  -155.459  -606.375
-57.7883  -155.41  -602.571
-63.6988  -144.744  -604.444
-58.6925  -145.959  -601.833
-61.914  -137.035  -607.667
-59.6608  -120.856  -601
-58.9705  -115.537  -602
-55.7135  -102.442  -603.667
-53.6719  -98.6223  -604.5
-48.8051  -96.0128  -603
-39.1996  -90.9766  -601
-45.6468  -89.7015  -603
-50.1336  -210.143  -600
-43.1278  -214.677  -597.909
-36.2462  -212.837  -596.857
-29.6075  -211.008  -598
-50.0501  -200.389  -599
-45.5686  -205.326  -594.5
-34.6277  -207.675  -593.5
-28.1721  -205.452  -596.143
-52.1695  -192.138  -599.333
-45.6796  -195.794  -594.571
-28.2414  -195.995  -594
-53.2798  -185.427  -597.083
-48.4202  -184.236  -594.4
-27.807  -187.525  -593
-53.6839  -173.936  -597.5
-47.0474  -175.073  -593.643
-53.4237  -163.754  -594.6
-45.5123  -168.331  -591
-53.9794  -155.185  -594.75
-54.7692  -144.164  -597.667
-49.6741  -143.662  -594.5
-30.9651  -142.762  -594
-55.4843  -134.46  -594.4
-57.3527  -125.9  -595.111
-57.9971  -114.397  -596
-31.0563  -115.508  -595.75
-52.6037  -103.303  -596
-44.4892  -102.911  -592.75
-37.7309  -103.569  -596.5
-51.6188  -98.5106  -599
-47.1628  -96.116  -595.5
-37.3127  -93.3387  -596
-43.5103  -89.3603  -595.5
-42.0405  -202.296  -589.333
-35.5036  -201.668  -589
-43.1854  -195.202  -587.333
-34.9923  -194.754  -585
-29.1371  -194.567  -588.5
-44.4943  -184.745  -585.7
-32.1237  -187.742  -581.2
-28.8978  -185.089  -583.667
-42.5429  -174.971  -585.667
-38.0269  -171.771  -583
-27.2911  -177.95  -582
-53.1178  -161.732  -589.5
-45.0783  -163.744  -586.077
-24.34  -166.434  -584.333
-51.2146  -155.254  -588.333
-45.7736  -155.592  -582.923
-50.4985  -147.74  -586
-48.394  -144.232  -585.333
-34.9042  -146.727  -582
-28.177  -148.12  -584.5
-50.714  -133.738  -588.5
-47.9151  -134.337  -584.4
-30.6001  -138.008  -587
-29.2114  -132.538  -590
-52.4594  -124.53  -588.625
-48.2621  -125.388  -585.429
-31.1016  -120.842  -582
-28.4831  -123.725  -583
-53.0774  -115.576  -586.167
-46.2866  -114.632  -583.462
-31.5694  -116.309  -586
-28.3164  -118.908  -587.5
-52.0368  -107.1  -586
-44.9765  -105.464  -585.476
-35.8022  -107.513  -585.857
-42.7115  -96.0004  -586.5
-38.7863  -94.2136  -586.833
-42.054  -89.4687  -586
-41.5908  -182.494  -579.5
-35.7021  -183.913  -577.143
-40.6564  -178.685  -577
-37.2854  -175.76  -574.857
-27.9201  -174.669  -576.2
-37.6724  -163.789  -574.286
-26.2916  -167.213  -571.333
-42.7921  -151.696  -578.667
-38.5886  -154.311  -576.167
-24.2282  -152.623  -574.4
-44.0285  -145.473  -577.6
-35.9658  -144.978  -576.067
-27.837  -147.862  -577.5
-42.8123  -135.095  -573.154
-34.9749  -135.722  -575.263
-43.1974  -124.603  -576.091
-34.4927  -124.703  -573.4
-29.9485  -125.299  -574.5
-42.562  -116.518  -579.429
-36.0188  -115.536  -575.389
-49.9815  -107.527  -580
-36.9547  -108.554  -575.8
-33.6051  -174.137  -568.444
-29.6097  -172.183  -568
-33.0773  -165.21  -563.667
-28.38  -165.275  -564.714
-33.4352  -154.419  -564.923
-27.6186  -155.31  -566.5
-32.2712  -147.108  -566.833
-29.6097  -146.916  -568
-41.1584  -125.56  -570
-36.372  -126.731  -569.125
-35.685  -111.639  -570
-31.3091  -161.265  -558.5
-29.1926  -160.966  -560
-32.0684  -158.484  -559
-29.0884  -158.931  -558
